ncols                271
nrows                32
xllcorner     4422300
yllcorner     5722100
cellsize          100.00
NODATA_value       -9999
-9999.000  -9999.000  -9999.000  -9999.000  -9999.000  -9999.000  -9999.000  -9999.000  -9999.000  -9999.000  -9999.000  -9999.000  -9999.000  -9999.000  -9999.000  -9999.000  -9999.000  -9999.000  -9999.000  -9999.000  -9999.000  -9999.000  -9999.000  -9999.000  -9999.000  -9999.000  -9999.000  -9999.000  -9999.000  -9999.000    516.640    518.820    520.540    519.690    515.360    513.760    516.220    516.330    516.230    513.190    507.040    504.360    503.810    503.660    502.610    499.430    496.390    494.360    496.830    496.070    496.070    495.610    496.850    499.980    501.970    502.130    505.030    511.870    512.320    511.820    508.820    504.950    501.120    498.240    495.050    491.840    482.590    477.100    467.270    459.020    450.770    445.430    449.430    444.040    437.820    434.210    432.280    432.640    431.070    438.090    445.430    445.240    443.790    440.130    437.550    433.910    432.420    430.830    429.690    427.480    427.260    425.600    424.830    424.480    425.170    424.760    425.940    418.270    417.080    417.080    419.590    423.040    427.300    433.260    435.710    435.710    435.270    434.180    432.820    429.680    427.850    425.810    424.820    422.800    421.460    421.410    421.600    421.420    420.810    418.780    413.520    399.000    392.880    390.690    390.880    399.740    398.710    428.950    445.370    441.670    437.740    439.100    439.720    438.580    440.420    442.710    440.750    435.340    434.750    432.270    430.340    427.620    422.850    411.960    403.990    400.860    399.470    391.520    385.630    385.630    389.500    398.070    400.660    402.190    400.650    399.150    398.430    396.890    394.210    390.710    384.000    376.950    359.300    369.160    371.870    362.020    322.080    322.080    350.860    366.570    363.210    340.650    315.630    326.350    360.380    392.020    400.120    397.950    395.440    394.400    392.960    391.880    389.240    393.790    396.010    395.890    392.970    390.280    387.020    385.100    378.230    359.430    350.300    343.980    309.670    282.020    325.740    332.740    336.870    367.150    388.040    380.290    363.390    343.520    364.110    388.970    381.420    365.710    366.400    359.470    358.140    358.140    375.710    385.000    390.980    390.870    391.650    389.510    393.340    394.500    394.470    395.520    394.600    392.870    389.260    382.790    382.800    381.040    382.390    377.520    363.740    378.950    393.940    401.440    399.020    400.860    397.000    381.330    396.580    391.150    368.310    366.840    376.930    368.400    382.930    375.250    380.000    378.980  -9999.000  -9999.000  -9999.000  -9999.000  -9999.000  -9999.000  -9999.000  -9999.000  -9999.000  -9999.000  -9999.000  -9999.000  -9999.000  -9999.000  -9999.000  -9999.000  -9999.000  -9999.000  -9999.000  -9999.000  -9999.000  -9999.000  -9999.000
-9999.000  -9999.000  -9999.000  -9999.000  -9999.000  -9999.000  -9999.000  -9999.000  -9999.000  -9999.000  -9999.000  -9999.000  -9999.000  -9999.000  -9999.000  -9999.000  -9999.000  -9999.000  -9999.000  -9999.000  -9999.000  -9999.000  -9999.000  -9999.000  -9999.000  -9999.000  -9999.000  -9999.000  -9999.000    512.800    515.010    517.520    519.020    519.060    514.790    512.230    508.150    510.650    511.300    506.150    500.310    497.150    497.160    497.100    497.270    496.420    493.300    489.030    492.280    491.840    491.870    491.640    494.550    497.580    497.280    495.430    498.130    502.230    505.820    509.030    503.100    501.290    499.720    496.130    492.850    485.470    478.850    466.500    458.250    449.370    442.700    438.010    440.340    434.980    430.500    427.570    428.680    428.780    429.700    434.800    440.330    443.760    441.380    440.080    438.180    435.200    432.970    432.230    430.890    430.440    429.520    429.710    431.120    431.070    431.420    431.110    430.150    424.810    422.130    417.080    417.080    427.510    432.290    436.230    437.570    436.770    435.000    432.300    426.560    423.000    418.490    417.170    417.460    416.450    415.180    414.520    414.860    414.960    415.160    413.100    410.170    408.290    402.230    394.160    387.970    386.640    392.560    406.620    424.830    445.160    437.390    430.110    429.180    422.220    425.890    429.770    436.490    438.610    434.380    433.890    432.700    430.060    420.150    418.580    415.980    400.860    400.640    402.480    399.040    400.790    403.120    404.670    405.970    405.420    404.600    402.250    400.260    398.240    394.480    388.760    378.300    372.200    374.770    374.740    374.450    372.230    363.840    334.660    322.080    337.640    368.930    361.580    328.680    320.620    320.620    386.140    402.830    398.420    395.010    394.300    394.700    394.660    394.820    391.720    397.670    397.060    394.680    392.030    389.650    387.320    381.020    376.290    365.010    326.380    300.830    297.420    282.020    283.590    310.130    348.380    365.440    366.140    348.880    337.050    345.500    377.420    376.360    360.760    349.010    339.200    341.240    344.890    367.540    370.850    388.830    385.340    387.550    386.490    393.080    396.980    397.670    398.140    398.430    397.880    394.030    392.000    390.360    389.100    385.740    377.590    363.740    381.730    396.150    403.120    403.150    397.460    394.150    398.140    394.930    377.520    374.200    389.540    390.070    386.160    387.200    386.650  -9999.000  -9999.000  -9999.000  -9999.000  -9999.000  -9999.000  -9999.000  -9999.000  -9999.000  -9999.000  -9999.000  -9999.000  -9999.000  -9999.000  -9999.000  -9999.000  -9999.000  -9999.000  -9999.000  -9999.000  -9999.000  -9999.000  -9999.000  -9999.000  -9999.000
-9999.000  -9999.000  -9999.000  -9999.000  -9999.000  -9999.000  -9999.000  -9999.000  -9999.000  -9999.000  -9999.000  -9999.000  -9999.000  -9999.000  -9999.000  -9999.000  -9999.000  -9999.000  -9999.000  -9999.000  -9999.000  -9999.000  -9999.000  -9999.000  -9999.000  -9999.000  -9999.000    510.010    511.100    509.960    512.950    516.540    519.680    519.440    517.940    515.290    510.510    508.150    499.830    495.870    494.340    490.580    490.550    491.710    493.820    492.340    489.020    483.700    487.560    487.720    486.850    489.900    495.240    495.780    494.420    489.580    490.550    491.370    493.690    494.350    494.420    497.790    498.980    493.640    481.850    474.790    467.800    458.510    451.410    446.670    441.480    435.070    434.440    431.130    427.230    425.470    423.520    424.920    425.670    430.240    437.180    440.210    439.870    439.810    438.800    437.210    434.760    434.050    434.650    433.980    434.630    434.350    434.260    434.470    433.690    431.880    428.200    426.420    420.760    417.080    422.090    436.340    439.340    439.030    437.130    435.340    432.300    427.620    420.940    416.940    413.940    412.220    412.390    411.080    409.220    406.990    407.170    405.680    405.030    402.080    397.760    406.840    402.020    399.280    395.990    389.410    385.150    388.850    408.280    438.980    432.400    416.250    412.330    408.710    410.280    423.350    429.700    433.570    435.570    435.040    434.460    430.060    427.510    425.910    423.390    414.480    412.040    413.330    411.560    410.570    410.700    411.390    409.300    406.650    404.290    401.280    399.700    397.300    394.440    390.000    385.980    384.550    382.420    379.890    376.320    371.880    343.000    322.080    322.080    322.080    354.750    353.550    336.950    322.080    322.370    379.960    406.050    402.900    398.790    396.980    397.480    397.850    396.230    395.900    399.380    398.270    396.400    394.910    393.240    390.570    384.790    374.330    343.770    311.200    309.680    340.600    323.950    311.470    286.100    307.360    314.960    323.550    312.830    306.870    319.520    336.370    332.850    332.070    328.350    328.350    328.350    334.840    342.390    370.550    383.620    379.770    376.290    376.290    384.820    394.940    397.400    397.690    399.070    398.900    398.200    397.800    396.520    395.320    389.930    378.920    381.310    390.730    397.370    403.680    401.800    401.730    403.100    398.640    396.010    393.180    394.270    392.810    393.580    392.870  -9999.000  -9999.000  -9999.000  -9999.000  -9999.000  -9999.000  -9999.000  -9999.000  -9999.000  -9999.000  -9999.000  -9999.000  -9999.000  -9999.000  -9999.000  -9999.000  -9999.000  -9999.000  -9999.000  -9999.000  -9999.000  -9999.000  -9999.000  -9999.000  -9999.000  -9999.000  -9999.000
-9999.000  -9999.000  -9999.000  -9999.000  -9999.000  -9999.000  -9999.000  -9999.000  -9999.000  -9999.000  -9999.000  -9999.000  -9999.000  -9999.000  -9999.000  -9999.000  -9999.000  -9999.000  -9999.000  -9999.000  -9999.000  -9999.000  -9999.000  -9999.000  -9999.000  -9999.000  -9999.000    509.830    505.670    506.910    511.040    514.200    517.160    515.530    514.430    513.760    512.470    509.970    508.550    503.600    497.580    489.760    485.910    487.340    490.520    487.560    482.960    479.370    481.460    481.580    481.780    488.470    493.390    493.830    489.620    485.400    483.260    484.340    485.480    487.520    492.310    496.890    498.400    489.320    479.320    467.380    459.870    454.480    448.520    443.360    438.730    434.960    430.910    428.340    425.570    422.540    422.400    422.720    422.120    427.690    436.540    440.490    442.700    443.240    442.520    440.650    440.280    439.380    438.570    437.940    437.790    437.240    435.770    433.280    428.970    421.500    417.080    419.010    417.080    425.550    444.830    442.960    440.580    437.680    434.460    431.240    427.980    423.100    418.260    414.860    410.640    407.690    407.680    405.200    403.440    402.530    402.230    401.880    400.310    400.130    399.660    394.370    389.690    389.240    388.400    387.880    384.240    381.880    393.390    422.510    427.210    420.740    410.320    398.900    404.020    413.980    431.050    434.610    435.170    435.020    434.490    432.310    429.320    426.480    425.220    422.270    423.270    423.730    422.370    419.350    416.100    412.290    408.010    403.880    400.790    398.700    397.080    394.740    393.750    392.460    388.770    385.920    384.480    380.410    375.070    367.640    336.640    322.080    344.370    335.720    322.080    322.080    322.080    322.080    354.600    398.850    410.000    406.030    402.770    400.560    400.310    399.910    399.330    399.160    401.480    400.600    398.650    396.860    395.280    391.570    379.840    349.740    328.380    342.640    343.840    370.700    362.010    336.650    303.940    306.870    306.870    306.870    306.870    306.870    306.870    306.870    312.090    328.350    338.910    340.420    343.260    349.210    346.680    349.710    356.060    361.410    378.320    389.850    395.120    389.200    393.810    396.580    396.690    398.740    400.840    402.720    399.480    395.210    384.540    387.640    385.840    395.520    399.100    403.490    403.530  -9999.000  -9999.000    399.010    397.250    397.660  -9999.000  -9999.000  -9999.000  -9999.000  -9999.000  -9999.000  -9999.000  -9999.000  -9999.000  -9999.000  -9999.000  -9999.000  -9999.000  -9999.000  -9999.000  -9999.000  -9999.000  -9999.000  -9999.000  -9999.000  -9999.000  -9999.000  -9999.000  -9999.000  -9999.000  -9999.000  -9999.000  -9999.000  -9999.000  -9999.000  -9999.000
-9999.000  -9999.000  -9999.000  -9999.000  -9999.000  -9999.000  -9999.000  -9999.000  -9999.000  -9999.000  -9999.000  -9999.000  -9999.000  -9999.000  -9999.000  -9999.000  -9999.000  -9999.000  -9999.000  -9999.000  -9999.000  -9999.000  -9999.000  -9999.000  -9999.000  -9999.000    513.220    510.360    505.300    501.120    506.520    510.800    512.450    511.980    510.790    509.130    508.980    508.960    506.590    502.510    498.990    494.550    489.250    483.520    485.670    481.180    476.990    474.780    475.520    475.240    478.750    485.540    491.360    491.640    486.750    480.460    476.400    477.200    480.950    485.810    491.400    494.510    489.780    482.300    472.610    462.720    457.400    452.450    446.920    442.880    437.900    434.630    430.240    426.720    424.690    422.890    420.600    421.150    421.310    433.890    443.360    448.410    451.030    450.830    449.420    447.110    446.100    444.580    442.380    440.250    437.820    434.700    430.780    421.750    411.080    410.930    420.140    417.080    433.210    447.300    446.110    442.200    439.930    435.120    430.570    425.810    422.980    420.180    415.030    412.070    410.480    408.370    408.650    410.500    408.830    409.280    410.170    410.750    410.500    409.580    408.740    398.170    397.060    395.050    391.700    389.780    382.150    381.370    381.770    404.710    405.560    405.610    398.860    413.180    421.690    426.510    430.890    432.080    434.060    431.710    430.270    429.140    426.160    422.940    421.630    425.370    426.740    427.490    425.820    420.090    414.430    409.880    403.800    398.740    396.750    395.260    393.910    392.800    392.230    391.960    390.110    386.500    383.910    379.330    373.950    368.460    348.860    322.080    329.620    367.430    326.610    326.160    348.570    362.150    371.930    402.060    411.730    408.480    406.560    404.060    402.990    402.270    401.750    401.800    401.650    401.290    399.960    397.630    394.900    381.480    364.220    353.300    341.720    346.740    374.030    396.240    388.420    344.410    340.900    352.800    341.760    328.920    342.530    332.310    308.110    306.870    333.040    359.640    364.310    359.620    360.440    367.660    364.330    357.110    354.020    381.160    395.350    395.560    395.120    395.490    393.470    394.760    393.530    397.960    402.600    402.850    401.450    398.930    393.450    395.490    391.780    395.490    400.170  -9999.000  -9999.000  -9999.000  -9999.000  -9999.000  -9999.000  -9999.000  -9999.000  -9999.000  -9999.000  -9999.000  -9999.000  -9999.000  -9999.000  -9999.000  -9999.000  -9999.000  -9999.000  -9999.000  -9999.000  -9999.000  -9999.000  -9999.000  -9999.000  -9999.000  -9999.000  -9999.000  -9999.000  -9999.000  -9999.000  -9999.000  -9999.000  -9999.000  -9999.000  -9999.000  -9999.000  -9999.000  -9999.000
-9999.000  -9999.000  -9999.000  -9999.000  -9999.000  -9999.000  -9999.000  -9999.000  -9999.000  -9999.000  -9999.000  -9999.000  -9999.000  -9999.000  -9999.000  -9999.000  -9999.000  -9999.000  -9999.000  -9999.000  -9999.000  -9999.000  -9999.000  -9999.000    519.670    515.300    511.320    505.600    500.780    500.950    505.320    509.090    508.510    510.010    509.280    505.190    500.070    499.770    494.550    489.590    489.190    484.550    482.490    479.220    476.890    474.780    474.780    474.780    474.780    479.490    486.340    488.500    488.510    485.670    478.370    472.510    472.900    479.520    485.370    490.750    489.870    481.760    474.860    468.970    460.890    456.460    454.430    451.140    448.780    445.270    440.530    435.990    427.320    424.870    422.890    423.420    419.440    419.440    419.540    433.220    445.020    453.620    456.100    455.810    454.520    451.330    448.310    445.420    441.650    438.490    433.310    426.760    417.460    410.930    410.930    445.560    458.090    448.700    464.500    450.240    444.490    440.890    437.530    432.180    426.200    423.230    421.390    418.480    417.170    418.040    417.060    416.120    416.680    416.980    416.560    417.500    417.610    417.020    416.420    415.390    412.860    407.560    406.010    404.880    401.430    398.310    394.910    386.350    378.140    378.910    383.620    385.940    382.230    397.480    406.230    414.590    418.350    426.350    433.310    429.300    426.830    422.770    419.230    418.080    421.760    424.520    427.990    427.660    423.940    418.000    410.970    403.860    398.500    392.810    391.020    390.040    389.740    389.320    388.080    387.080    386.630    386.460    381.980    376.010    368.070    361.340    343.320    324.180    327.790    369.050    373.030    360.820    375.580    392.840    400.710    408.400    408.690    409.840    408.580    406.400    404.840    404.380    402.890    402.060    401.860    401.310    400.060    397.480    395.780    383.180    367.420    377.170    355.660    376.270    377.810    406.090    389.490    358.890    368.960    387.100    375.610    365.300    347.780    324.090    327.300    314.000    306.870    317.680    354.220    366.710    366.380    362.260    369.520    369.960    363.520    359.580    382.360    386.580    392.460    390.930    388.180    391.580    391.080    395.220    400.120    402.500    402.190    402.080    400.780    400.940    400.760    398.750    397.890  -9999.000  -9999.000  -9999.000  -9999.000  -9999.000  -9999.000  -9999.000  -9999.000  -9999.000  -9999.000  -9999.000  -9999.000  -9999.000  -9999.000  -9999.000  -9999.000  -9999.000  -9999.000  -9999.000  -9999.000  -9999.000  -9999.000  -9999.000  -9999.000  -9999.000  -9999.000  -9999.000  -9999.000  -9999.000  -9999.000  -9999.000  -9999.000  -9999.000  -9999.000  -9999.000  -9999.000  -9999.000  -9999.000
-9999.000  -9999.000  -9999.000  -9999.000  -9999.000  -9999.000  -9999.000  -9999.000  -9999.000  -9999.000  -9999.000  -9999.000  -9999.000  -9999.000  -9999.000  -9999.000  -9999.000  -9999.000  -9999.000  -9999.000  -9999.000  -9999.000  -9999.000    525.540    520.400    512.080    505.040    499.810    499.160    499.080    506.960    507.480    506.410    512.060    513.720    513.490    509.630    500.360    501.040    498.840    493.540    490.840    490.850    488.490    487.320    480.750    476.250    474.780    475.300    478.630    479.120    482.650    484.950    480.850    475.170    467.770    468.070    480.150    482.860    487.950    481.580    476.020    472.290    468.650    464.260    461.290    457.990    455.750    454.350    451.550    447.990    442.920    431.770    429.450    427.740    426.280    424.100    418.450    417.130    435.760    452.620    458.190    457.850    455.120    450.330    446.190    442.000    438.420    434.630    429.560    424.570    415.740    406.480    433.230    438.790    438.440    436.320    451.990    445.300    440.930    438.940    437.070    434.330    433.080    427.700    426.650    424.820    426.320    428.150    428.350    426.500    425.300    422.920    422.350    422.480    422.060    420.750    418.220    414.700    411.860    408.880    408.340    406.120    401.500    397.950    394.180    389.460    383.960    379.120    377.350    375.780    377.650    387.120    393.190    397.230    413.910    426.200    428.850    428.200    426.480    426.480    421.090    420.310    416.240    408.880    424.730    427.460    425.190    419.670    413.810    405.370    397.920    391.680    387.660    385.420    383.990    383.590    382.560    380.200    380.850    385.040    387.180    382.480    378.390    371.000    363.430    354.890    324.180    324.180    337.170    372.190    382.450    382.500    377.530    396.240    403.320    406.100    407.020    407.320    406.220    404.940    404.480    402.930    402.390    402.260    401.600    399.620    395.770    387.170    386.350    390.070    388.160    376.400    386.000    376.270    390.320    397.170    382.070    385.230    396.100    386.850    365.740    360.120    348.040    345.760    348.540    325.210    308.290    324.380    347.470    335.050    359.480    374.730    373.070    375.120    369.960    369.080    370.320    385.340    381.400    382.930    385.870    387.480    392.310    397.340    403.060    404.800    403.550    403.990    405.060  -9999.000  -9999.000  -9999.000  -9999.000  -9999.000  -9999.000  -9999.000  -9999.000  -9999.000  -9999.000  -9999.000  -9999.000  -9999.000  -9999.000  -9999.000  -9999.000  -9999.000  -9999.000  -9999.000  -9999.000  -9999.000  -9999.000  -9999.000  -9999.000  -9999.000  -9999.000  -9999.000  -9999.000  -9999.000  -9999.000  -9999.000  -9999.000  -9999.000  -9999.000  -9999.000  -9999.000  -9999.000  -9999.000  -9999.000  -9999.000  -9999.000
-9999.000  -9999.000  -9999.000  -9999.000  -9999.000  -9999.000  -9999.000  -9999.000  -9999.000  -9999.000  -9999.000  -9999.000  -9999.000  -9999.000  -9999.000  -9999.000  -9999.000  -9999.000  -9999.000  -9999.000  -9999.000  -9999.000  -9999.000    529.750    520.450    515.770    510.500    505.290    500.660    492.370    500.940    498.680    507.630    512.690    513.350    511.570    508.400    508.280    507.370    501.530    498.410    496.200    493.590    490.010    485.920    488.220    481.700    475.820    466.150    463.540    470.850    473.310    479.510    476.000    465.860    458.180    469.620    471.160    470.120    472.270    470.820    466.210    462.840    474.590    475.360    477.560    474.760    470.990    462.900    459.720    455.970    449.840    438.690    436.520    433.610    431.130    429.640    426.490    421.760    412.420    439.520    454.160    455.850    451.430    446.380    440.960    436.680    431.740    429.020    427.040    423.200    419.490    407.750    404.780    408.460    412.170    413.800    434.420    433.600    434.860    438.620    440.780    439.860    438.310    434.200    431.780    430.970    430.600    431.780    431.740    430.670    429.070    426.990    424.700    423.210    421.990    420.010    416.890    411.820    406.910    402.330    406.200    400.150    396.030    392.840    388.270    384.830    382.350    379.900    377.240    374.260    373.640    373.070    382.530    395.810    408.130    419.350    424.650    424.360    422.860    421.260    420.330    418.590    411.630    407.610    427.230    424.430    419.870    409.200    395.040    389.850    384.620    381.950    381.350    375.490    375.440    377.290    373.310    379.010    387.670    389.770    388.700    384.560    379.860    368.060    338.680    324.180    324.180    358.380    368.820    365.970    381.380    388.920    394.540    398.460    401.650    403.850    405.220    404.940    404.510    403.840    403.130    402.970    402.910    402.660    401.900    400.630    398.020    396.710    397.600    396.350    394.650    397.610    400.590    400.020    400.750    398.430    398.250    393.440    386.070    376.190    371.260    366.540    358.740    348.700    317.790    317.790    315.120    310.480    312.200    315.500    337.520    355.650    375.390    378.660    380.850    383.620    382.520    374.280    379.450    383.000    383.970    385.900    390.820    392.970    398.400    403.720  -9999.000  -9999.000  -9999.000  -9999.000  -9999.000  -9999.000  -9999.000  -9999.000  -9999.000  -9999.000  -9999.000  -9999.000  -9999.000  -9999.000  -9999.000  -9999.000  -9999.000  -9999.000  -9999.000  -9999.000  -9999.000  -9999.000  -9999.000  -9999.000  -9999.000  -9999.000  -9999.000  -9999.000  -9999.000  -9999.000  -9999.000  -9999.000  -9999.000  -9999.000  -9999.000  -9999.000  -9999.000  -9999.000  -9999.000  -9999.000  -9999.000  -9999.000  -9999.000  -9999.000
-9999.000  -9999.000  -9999.000  -9999.000  -9999.000  -9999.000  -9999.000  -9999.000  -9999.000  -9999.000  -9999.000  -9999.000  -9999.000  -9999.000  -9999.000  -9999.000  -9999.000  -9999.000  -9999.000  -9999.000  -9999.000  -9999.000    536.750    533.780    526.040    519.520    507.920    499.470    493.950    489.780    491.200    496.510    503.500    507.670    511.980    513.380    513.870    516.580    513.930    509.640    505.260    500.270    494.660    490.180    495.480    490.710    484.880    480.010    470.350    462.190    459.480    459.480    456.450    453.190    452.360    454.480    465.190    460.260    453.820    456.190    455.160    453.510    452.250    456.730    457.290    463.600    468.280    467.850    460.920    458.840    456.630    450.770    444.260    439.980    436.040    432.400    430.340    426.090    420.100    412.400    420.940    442.180    448.990    446.630    442.490    436.840    430.780    425.200    421.380    421.110    425.400    420.050    419.410    405.560    401.420    413.620    423.960    418.190    426.980    439.010    445.470    449.110    447.210    444.040    439.280    435.460    433.460    432.150    430.880    430.480    429.060    427.350    426.120    424.590    422.770    419.320    415.370    410.280    405.930    402.920    402.490    398.060    393.390    389.860    388.560    386.930    388.020    386.760    388.120    388.390    383.270    372.340    371.950    372.530    386.810    401.030    411.090    415.170    415.670    416.300    418.050    419.230    417.420    413.070    407.610    410.720    416.530    420.410    412.280    402.220    393.930    387.120    383.240    380.610    373.950    369.610    362.800    363.760    382.720    390.140    391.830    391.670    390.500    381.580    371.010    345.570    324.180    324.180    330.790    357.050    371.110    376.380    377.350    388.400    392.540    395.810    401.440    404.120    404.630    404.420    403.030    402.970    403.870    403.700    404.990    406.190    405.450    403.990    403.430    403.800    402.850    401.600    402.990    403.640    404.000    403.390    401.180    397.280    392.310    386.300    380.210    368.600    345.920    335.590    318.890    325.550    340.740    331.570    325.040    319.890    314.300    359.680    372.060    375.620    373.610    373.260    376.180    381.620    390.850    390.880    387.110    390.240    389.570    387.220    397.330    402.230    401.460  -9999.000  -9999.000  -9999.000  -9999.000  -9999.000  -9999.000  -9999.000  -9999.000  -9999.000  -9999.000  -9999.000  -9999.000  -9999.000  -9999.000  -9999.000  -9999.000  -9999.000  -9999.000  -9999.000  -9999.000  -9999.000  -9999.000  -9999.000  -9999.000  -9999.000  -9999.000  -9999.000  -9999.000  -9999.000  -9999.000  -9999.000  -9999.000  -9999.000  -9999.000  -9999.000  -9999.000  -9999.000  -9999.000  -9999.000  -9999.000  -9999.000  -9999.000  -9999.000  -9999.000
-9999.000  -9999.000  -9999.000  -9999.000  -9999.000  -9999.000  -9999.000  -9999.000  -9999.000  -9999.000  -9999.000  -9999.000  -9999.000  -9999.000  -9999.000  -9999.000  -9999.000  -9999.000  -9999.000  -9999.000  -9999.000  -9999.000  -9999.000    534.710    528.480    520.170    505.640    498.470    494.130    491.180    489.730    486.180    497.080    504.720    511.530    513.400    515.670    518.820    519.530    517.480    511.490    503.330    496.680    494.590    496.050    493.500    487.620    479.190    473.340    466.150    471.220    466.930    469.710    468.750    458.680    448.730    445.660    447.090    442.190    437.620    435.610    439.220    438.490    440.870    443.610    451.970    458.900    462.000    456.840    450.480    448.820    445.470    444.980    439.120    433.550    428.320    423.740    417.260    411.660    409.830    420.190    434.700    441.080    441.360    439.130    436.210    432.350    430.380    426.320    422.540    407.540    403.840    399.810    399.810    416.010    434.940    439.260    433.060    442.080    455.430    466.360    464.670    459.940    451.210    442.790    437.710    434.770    431.340    429.400    427.380    424.740    422.660    420.740    420.700    422.550    421.280    417.780    414.590    411.510    409.560    407.550    400.880    400.380    398.440    398.360    397.880    398.740    398.530    396.890    394.910    389.850    380.760    371.930    369.750    377.640    397.450    398.470    398.320    406.730    406.650    413.130    417.280    414.160    410.400    404.870    395.990    406.950    417.210    417.400    408.570    400.430    396.370    393.670    389.610    384.600    381.860    372.010    361.380    362.830    382.450    387.910    390.790    388.690    376.380    357.620    335.960    324.180    324.180    362.630    355.580    366.640    374.690    384.720    390.480    393.640    398.120    403.280    405.520    405.170    404.660    403.870    403.420    405.420    404.940    407.310    407.670    408.350    409.130    407.980    407.570    404.730    404.510    405.750    406.660    405.000    404.270    400.590    395.980    393.170    386.860    373.140    347.570    328.750    328.750    342.710    358.170    353.330    346.760    337.050    326.540    316.890    328.780    346.720    351.320    346.700    367.650    377.160    386.340    395.240    385.620    378.980    381.640    380.920    384.800    396.420    405.980  -9999.000  -9999.000  -9999.000  -9999.000  -9999.000  -9999.000  -9999.000  -9999.000  -9999.000  -9999.000  -9999.000  -9999.000  -9999.000  -9999.000  -9999.000  -9999.000  -9999.000  -9999.000  -9999.000  -9999.000  -9999.000  -9999.000  -9999.000  -9999.000  -9999.000  -9999.000  -9999.000  -9999.000  -9999.000  -9999.000  -9999.000  -9999.000  -9999.000  -9999.000  -9999.000  -9999.000  -9999.000  -9999.000  -9999.000  -9999.000  -9999.000  -9999.000  -9999.000  -9999.000  -9999.000
-9999.000  -9999.000  -9999.000  -9999.000  -9999.000  -9999.000  -9999.000  -9999.000  -9999.000  -9999.000  -9999.000  -9999.000  -9999.000  -9999.000  -9999.000  -9999.000  -9999.000  -9999.000  -9999.000  -9999.000  -9999.000  -9999.000  -9999.000    534.340    527.310    522.480    513.450    502.300    492.940    487.370    487.240    480.800    495.520    500.410    503.810    505.560    510.910    514.980    519.830    520.040    515.300    508.060    501.570    499.870    499.670    494.760    487.120    483.290    476.990    472.380    478.710    476.980    480.600    479.420    471.280    465.750    456.290    445.660    439.840    436.910    434.030    429.510    427.110    428.470    432.420    442.350    454.450    459.000    451.860    440.280    436.890    436.730    437.350    434.390    427.840    420.140    408.490    408.490    409.080    416.400    428.090    432.090    434.520    435.350    435.160    434.280    431.770    432.090    432.280    428.520    413.260    398.380    417.810    429.200    442.500    444.290    451.990    449.140    459.210    471.970    473.000    467.750    460.010    449.390    441.280    435.630    432.000    429.600    427.190    423.680    420.590    416.160    414.060    414.500    418.050    420.970    417.580    413.720    409.740    408.570    407.550    407.900    407.240    405.870    404.270    403.880    403.300    402.440    400.870    398.090    393.790    386.680    381.080    367.370    367.280    375.780    382.580    388.150    395.160    405.600    413.880    416.480    412.540    410.790    407.850    398.690    392.240    393.030    403.790    409.510    407.340    403.720    400.600    398.630    392.260    389.060    381.950    372.790    361.020    355.530    383.190    390.070    380.680    361.400    324.180    324.180    324.180    373.210    386.740    382.540    362.650    376.130    385.730    391.340    395.310    400.280    403.920    405.720    405.130    404.870    403.720    402.160    405.120    403.880    406.480    407.200    407.350    406.800    405.510    405.180    405.170    404.550    402.420    399.570    404.160    402.760    399.650    387.180    368.520    367.880    355.580    338.820    338.030    356.750    362.220    361.400    350.870    338.620    328.130    321.220    329.280    325.620    325.630    336.240    358.590    374.360    375.770    371.930    383.160    368.570    370.050    374.190    382.280    397.000    404.580    404.630  -9999.000  -9999.000  -9999.000  -9999.000  -9999.000  -9999.000  -9999.000  -9999.000  -9999.000  -9999.000  -9999.000  -9999.000  -9999.000  -9999.000  -9999.000  -9999.000  -9999.000  -9999.000  -9999.000  -9999.000  -9999.000  -9999.000  -9999.000  -9999.000  -9999.000  -9999.000  -9999.000  -9999.000  -9999.000  -9999.000  -9999.000  -9999.000  -9999.000  -9999.000  -9999.000  -9999.000  -9999.000  -9999.000  -9999.000  -9999.000  -9999.000  -9999.000  -9999.000  -9999.000  -9999.000
-9999.000  -9999.000  -9999.000  -9999.000  -9999.000  -9999.000  -9999.000  -9999.000  -9999.000  -9999.000  -9999.000  -9999.000  -9999.000  -9999.000  -9999.000  -9999.000  -9999.000  -9999.000  -9999.000  -9999.000  -9999.000  -9999.000  -9999.000    536.280    528.020    521.640    513.870    500.050    490.420    484.450    480.800    480.800    486.120    489.440    490.500    496.960    500.160    507.330    516.510    517.080    515.180    511.770    509.890    505.920    499.060    494.540    491.140    485.770    480.480    482.490    482.160    483.770    486.810    484.990    479.820    470.250    455.910    456.350    449.130    453.280    450.190    445.040    432.060    424.830    422.640    430.280    442.060    447.280    443.720    432.880    426.830    423.660    431.220    424.600    421.270    408.490    429.540    434.600    431.760    431.840    422.670    419.790    424.200    427.740    429.230    428.630    428.300    431.040    433.180    431.330    418.820    401.400    396.000    398.370    412.050    435.070    449.520    458.190    466.040    468.400    460.750    454.000    449.160    442.920    437.240    432.580    430.560    428.510    423.970    419.920    415.500    412.960    409.780    406.780    410.390    411.310    410.330    408.200    406.070    404.950    405.180    407.770    408.100    406.160    404.340    403.620    402.740    401.450    399.330    396.320    393.630    390.440    382.280    375.580    367.280    367.720    373.500    378.580    394.660    404.910    413.020    415.830    412.500    409.790    405.860    403.900    399.830    392.240    378.280    378.210    386.520    400.080    404.720    401.580    397.010    391.570    384.710    378.260    374.980    356.170    351.330    372.040    367.780    341.640    324.180    324.180    356.110    391.170    382.510    376.340    377.590    376.350    377.000    377.580    384.250    386.430    397.880    401.690    404.230    404.700    402.400    399.800    396.960    403.680    403.610    404.330    403.970    402.810    401.860    402.970    404.980    403.780    398.260    393.420    398.480    399.630    399.960    394.030    385.060    371.290    347.340    339.240    360.250    369.310    368.200    361.330    347.360    330.700    323.920    344.080    344.140    333.900    346.880    344.300    337.670    345.800    345.800    350.090    356.620    365.640    374.610    380.680    396.980    403.660    405.340  -9999.000  -9999.000  -9999.000  -9999.000  -9999.000  -9999.000  -9999.000  -9999.000  -9999.000  -9999.000  -9999.000  -9999.000  -9999.000  -9999.000  -9999.000  -9999.000  -9999.000  -9999.000  -9999.000  -9999.000  -9999.000  -9999.000  -9999.000  -9999.000  -9999.000  -9999.000  -9999.000  -9999.000  -9999.000  -9999.000  -9999.000  -9999.000  -9999.000  -9999.000  -9999.000  -9999.000  -9999.000  -9999.000  -9999.000  -9999.000  -9999.000  -9999.000  -9999.000  -9999.000  -9999.000  -9999.000
-9999.000  -9999.000  -9999.000  -9999.000  -9999.000  -9999.000  -9999.000  -9999.000  -9999.000  -9999.000  -9999.000  -9999.000  -9999.000  -9999.000  -9999.000  -9999.000  -9999.000  -9999.000  -9999.000  -9999.000  -9999.000  -9999.000  -9999.000    537.670    531.460    524.210    517.650    509.390    496.620    484.800    480.800    480.800    480.800    480.440    480.010    491.170    489.690    498.680    504.560    509.600    515.240    512.920    509.830    507.000    503.920    499.540    495.870    494.800    486.050    487.080    488.750    490.540    490.880    486.760    478.750    467.620    465.060    459.030    455.960    460.100    457.520    446.160    440.130    430.940    426.150    419.600    420.680    437.310    441.140    427.130    420.600    416.230    420.090    416.150    415.540    410.340    403.220    422.330    420.050    418.340    414.720    409.020    413.030    417.410    420.450    420.540    423.930    429.890    430.300    427.130    421.960    416.180    407.420    394.820    393.250    403.940    430.570    460.500    467.410    458.010    450.640    445.270    440.870    437.290    433.520    430.860    428.400    426.480    422.730    419.440    417.040    415.690    413.070    409.810    403.120    404.310    402.670    403.020    402.900    401.970    401.390    404.760    403.820    402.720    401.140    399.870    398.640    397.160    394.820    391.850    387.870    386.870    384.200    379.160    368.090    366.360    372.120    393.210    411.740    416.320    416.190    414.230    410.320    405.600    401.400    401.170    397.530    393.250    388.500    381.530    369.750    366.630    375.630    388.890    392.780    387.070    380.410    377.800    375.280    370.240    350.240    332.740    330.440    324.180    324.180    375.690    368.720    353.200    350.280    344.490    367.180    365.850    356.210    382.510    390.300    397.690    397.730    400.500    403.200    403.570    399.910    396.950    395.050    397.320    400.220    400.340    399.560    397.850    397.360    402.100    403.840    400.870    395.850    389.740    391.340    394.720    401.000    393.710    378.770    349.580    353.550    367.210    369.760    371.920    367.160    358.240    344.880    328.720    341.480    374.460    353.780    344.410    365.600    367.220    356.330    354.030    348.910    375.860    364.310    372.290    393.700    396.330    400.360  -9999.000  -9999.000  -9999.000  -9999.000  -9999.000  -9999.000  -9999.000  -9999.000  -9999.000  -9999.000  -9999.000  -9999.000  -9999.000  -9999.000  -9999.000  -9999.000  -9999.000  -9999.000  -9999.000  -9999.000  -9999.000  -9999.000  -9999.000  -9999.000  -9999.000  -9999.000  -9999.000  -9999.000  -9999.000  -9999.000  -9999.000  -9999.000  -9999.000  -9999.000  -9999.000  -9999.000  -9999.000  -9999.000  -9999.000  -9999.000  -9999.000  -9999.000  -9999.000  -9999.000  -9999.000  -9999.000  -9999.000  -9999.000
-9999.000  -9999.000  -9999.000  -9999.000  -9999.000  -9999.000  -9999.000  -9999.000  -9999.000  -9999.000  -9999.000  -9999.000  -9999.000  -9999.000  -9999.000  -9999.000  -9999.000  -9999.000  -9999.000  -9999.000  -9999.000  -9999.000  -9999.000  -9999.000    534.360    527.390    516.540    503.560    496.120    486.830    484.560    486.890    485.680    480.050    475.910    480.360    486.160    482.510    500.070    506.840    508.620    508.890    507.110    506.310    504.220    500.490    498.300    495.820    494.400    493.120    492.890    492.640    489.830    485.720    484.620    480.690    474.900    471.410    468.120    468.580    466.290    460.190    452.300    444.360    437.080    433.450    418.980    415.930    418.590    416.790    413.180    411.250    413.700    410.240    408.200    403.960    400.910    398.910    398.910    398.910    398.910    400.070    408.910    404.510    407.980    419.650    426.970    427.940    426.250    422.380    418.560    416.320    413.180    410.390    399.140    391.610    399.450    455.910    463.610    453.230    445.720    439.530    434.590    431.500    430.540    427.900    425.370    421.860    420.090    418.460    417.220    415.300    412.600    410.200    405.950    400.520    395.530    395.850    394.640    394.880    393.840    400.530    397.990    396.390    394.460    393.050    392.370    391.290    388.050    383.880    380.800    380.700    380.860    378.830    368.840    364.770    371.510    411.440    417.840    419.900    419.000    412.050    407.020    401.600    397.450    397.510    393.550    389.240    384.030    374.090    379.040    381.910    358.350    354.290    354.290    348.860    344.550    344.550    359.610    364.390    363.050    357.640    344.440    324.180    324.180    348.950    328.880    344.490    344.490    344.490    344.490    345.400    377.850    394.770    395.010    393.910    392.860    399.080    401.620    402.450    398.490    391.710    391.750    396.060    396.870    396.260    395.320    393.600    394.080    400.540    399.450    395.680    392.950    390.450    381.930    385.740    390.430    375.220    353.700    368.950    379.920    379.250    374.130    369.720    359.600    355.040    347.040    328.720    367.440    374.270    360.540    354.980    375.180    392.010    388.680    370.360    372.710    376.190    380.140    376.640    382.560    390.720    396.710  -9999.000  -9999.000  -9999.000  -9999.000  -9999.000  -9999.000  -9999.000  -9999.000  -9999.000  -9999.000  -9999.000  -9999.000  -9999.000  -9999.000  -9999.000  -9999.000  -9999.000  -9999.000  -9999.000  -9999.000  -9999.000  -9999.000  -9999.000  -9999.000  -9999.000  -9999.000  -9999.000  -9999.000  -9999.000  -9999.000  -9999.000  -9999.000  -9999.000  -9999.000  -9999.000  -9999.000  -9999.000  -9999.000  -9999.000  -9999.000  -9999.000  -9999.000  -9999.000  -9999.000  -9999.000  -9999.000  -9999.000  -9999.000
-9999.000  -9999.000  -9999.000  -9999.000  -9999.000  -9999.000  -9999.000  -9999.000  -9999.000  -9999.000  -9999.000  -9999.000  -9999.000  -9999.000  -9999.000  -9999.000  -9999.000  -9999.000  -9999.000  -9999.000  -9999.000  -9999.000  -9999.000    538.280    535.500    526.330    516.860    512.750    507.450    497.030    493.490    491.960    489.300    485.320    481.220    475.910    476.970    489.640    501.620    504.540    504.320    501.250    502.180    502.180    500.490    498.280    495.340    492.510    494.420    493.670    492.690    491.720    489.910    488.100    486.260    484.150    480.360    477.410    475.640    474.890    473.310    470.990    465.940    459.950    453.030    445.230    429.500    414.620    411.680    409.850    408.270    404.300    406.390    403.450    403.450    402.100    406.900    411.830    411.610    407.990    403.860    398.280    398.280    407.510    417.130    421.250    426.180    425.990    424.010    417.810    411.500    411.150    412.250    412.050    408.090    402.140    389.920    431.880    454.180    451.190    444.290    438.210    433.290    429.280    425.490    425.730    421.180    418.040    415.000    416.140    416.170    412.800    409.640    406.020    402.120    399.790    395.640    391.320    388.700    388.630    386.000    392.560    390.510    388.090    386.240    385.010    383.440    384.000    380.080    376.190    374.280    375.430    375.540    375.170    371.640    364.210    375.620    414.090    422.460    422.050    415.900    406.820    402.370    400.200    396.090    394.390    389.100    382.530    378.750    383.470    386.220    388.190    384.210    375.650    367.930    362.550    360.280    351.710    339.560    328.460    330.870    329.830    324.180    324.180    327.810    324.180    341.610    351.670    366.340    360.440    356.600    363.820    371.180    367.680    377.100    377.100    389.700    396.230    398.020    398.100    395.590    388.850    385.260    392.590    392.400    390.930    390.770    390.190    391.000    394.640    392.830    391.020    388.130    384.110    388.800    371.980    371.400    368.440    384.480    389.790    382.170    379.340    378.210    370.140    364.910    356.440    332.670    337.130    376.000    387.680    372.960    369.530    385.400    398.340    393.630    375.700    388.880    380.730    391.370    391.970    395.290    396.810  -9999.000  -9999.000  -9999.000  -9999.000  -9999.000  -9999.000  -9999.000  -9999.000  -9999.000  -9999.000  -9999.000  -9999.000  -9999.000  -9999.000  -9999.000  -9999.000  -9999.000  -9999.000  -9999.000  -9999.000  -9999.000  -9999.000  -9999.000  -9999.000  -9999.000  -9999.000  -9999.000  -9999.000  -9999.000  -9999.000  -9999.000  -9999.000  -9999.000  -9999.000  -9999.000  -9999.000  -9999.000  -9999.000  -9999.000  -9999.000  -9999.000  -9999.000  -9999.000  -9999.000  -9999.000  -9999.000  -9999.000  -9999.000  -9999.000
-9999.000  -9999.000  -9999.000  -9999.000  -9999.000  -9999.000  -9999.000  -9999.000  -9999.000  -9999.000  -9999.000  -9999.000  -9999.000  -9999.000  -9999.000  -9999.000  -9999.000  -9999.000  -9999.000  -9999.000  -9999.000  -9999.000  -9999.000    534.560    529.790    523.500    517.820    512.450    508.360    505.390    503.250    501.710    498.930    495.350    490.860    483.640    472.090    475.820    492.370    497.860    496.450    487.360    496.220    495.480    493.800    490.590    486.690    482.150    490.270    490.880    490.440    489.470    487.020    486.920    486.180    483.620    479.810    477.510    476.900    476.310    475.390    473.410    471.580    468.400    463.280    454.310    444.750    437.810    432.680    421.450    409.280    403.450    403.450    406.130    410.720    416.560    425.130    421.820    418.240    415.600    409.360    407.070    398.280    398.280    397.220    409.950    419.990    424.740    423.250    419.930    417.310    413.420    404.220    400.290    396.280    396.710    389.920    414.520    446.670    448.870    442.580    435.910    429.620    425.620    422.380    422.150    420.240    414.010    411.100    409.520    413.620    410.730    406.900    401.170    396.100    394.300    390.350    388.190    385.190    384.120    383.450    384.040    382.440    380.880    376.940    374.670    373.620    372.230    370.420    370.420    370.420    370.480    372.260    369.230    370.230    364.210    382.960    410.600    416.610    414.480    406.970    399.900    397.530    397.610    397.220    392.910    392.240    391.170    393.200    392.590    394.210    393.760    393.770    392.390    386.950    378.320    377.020    370.500    363.860    340.060    324.180    324.180    324.180    352.530    364.330    363.820    362.600    365.250    372.740    375.710    370.570    356.600    356.600    356.600    377.850    391.270    393.710    389.610    385.200    389.770    388.480    382.220    384.830    387.390    389.120    389.170    389.160    389.130    389.480    390.420    389.080    386.560    383.940    380.410    382.540    373.390    375.800    386.820    388.960    388.550    381.230    378.610    372.680    366.130    356.760    343.060    340.430    375.830    385.640    391.320    381.510    381.910    389.900    395.650    395.320    390.460    394.410    392.010    389.540    395.310    397.300  -9999.000  -9999.000  -9999.000  -9999.000  -9999.000  -9999.000  -9999.000  -9999.000  -9999.000  -9999.000  -9999.000  -9999.000  -9999.000  -9999.000  -9999.000  -9999.000  -9999.000  -9999.000  -9999.000  -9999.000  -9999.000  -9999.000  -9999.000  -9999.000  -9999.000  -9999.000  -9999.000  -9999.000  -9999.000  -9999.000  -9999.000  -9999.000  -9999.000  -9999.000  -9999.000  -9999.000  -9999.000  -9999.000  -9999.000  -9999.000  -9999.000  -9999.000  -9999.000  -9999.000  -9999.000  -9999.000  -9999.000  -9999.000  -9999.000  -9999.000
-9999.000  -9999.000  -9999.000  -9999.000  -9999.000  -9999.000  -9999.000  -9999.000  -9999.000  -9999.000  -9999.000  -9999.000  -9999.000  -9999.000  -9999.000  -9999.000  -9999.000  -9999.000  -9999.000  -9999.000  -9999.000  -9999.000    530.400    534.560    526.030    517.970    508.790    505.420    503.090    502.600    501.290    503.590    499.720    494.020    485.700    478.660    471.160    472.140    479.980    485.360    484.260    474.650    486.710    483.760    480.690    477.340    474.150    470.070    484.500    486.290    484.940    480.220    484.400    483.880    482.260    481.420    478.550    473.070    474.420    473.120    472.700    472.760    470.850    466.380    460.640    452.560    444.250    435.870    426.600    416.940    405.690    420.100    436.630    437.960    438.240    438.190    431.620    426.180    422.810    417.510    416.470    415.110    409.910    401.900    398.130    394.280    412.180    422.920    422.890    422.100    420.600    415.710    412.060    409.930    402.680    389.920    417.400    417.690    450.250    447.740    441.350    433.650    427.160    422.250    419.810    417.470    414.180    411.640    409.890    407.720    405.260    402.330    399.870    399.320    396.220    394.620    393.720    392.450    388.890    388.030    388.630    382.580    382.290    380.790    382.600    382.610    383.270    383.780    382.290    379.260    375.700    370.420    364.560    363.720    364.950    364.210    398.640    409.450    408.870    403.880    398.800    395.600    394.570    394.600    397.220    397.080    400.500    401.720    401.740    401.680    400.600    399.760    398.910    394.830    388.020    380.850    373.290    356.720    324.620    324.180    324.360    343.780    365.930    372.500    372.450    372.930    372.590    372.240    380.630    384.760    380.610    383.970    378.820    359.530    377.000    397.140    387.520    381.240    379.470    379.490    379.470    379.470    383.390    386.240    389.510    389.960    389.850    389.310    389.130    389.050    387.440    384.160    380.480    379.100    374.490    378.030    380.270    384.490    386.670    383.820    380.220    374.460    367.090    356.350    351.630    340.430    340.430    368.940    390.800    393.700    390.880    385.840    387.960    392.180    393.400    396.400    395.430    395.060    396.530    398.100  -9999.000  -9999.000  -9999.000  -9999.000  -9999.000  -9999.000  -9999.000  -9999.000  -9999.000  -9999.000  -9999.000  -9999.000  -9999.000  -9999.000  -9999.000  -9999.000  -9999.000  -9999.000  -9999.000  -9999.000  -9999.000  -9999.000  -9999.000  -9999.000  -9999.000  -9999.000  -9999.000  -9999.000  -9999.000  -9999.000  -9999.000  -9999.000  -9999.000  -9999.000  -9999.000  -9999.000  -9999.000  -9999.000  -9999.000  -9999.000  -9999.000  -9999.000  -9999.000  -9999.000  -9999.000  -9999.000  -9999.000  -9999.000  -9999.000  -9999.000  -9999.000
-9999.000  -9999.000  -9999.000  -9999.000  -9999.000  -9999.000  -9999.000  -9999.000  -9999.000  -9999.000  -9999.000  -9999.000  -9999.000  -9999.000  -9999.000  -9999.000  -9999.000  -9999.000  -9999.000  -9999.000  -9999.000  -9999.000    527.390    527.460    519.400    509.600    501.760    495.690    493.970    495.090    493.520    486.660    478.420    471.160    471.160    471.160    471.160    473.000    466.920    464.660    464.980    460.290    467.620    471.220    468.730    467.360    461.920    464.400    481.520    480.070    470.070    463.280    476.990    475.080    478.410    475.460    471.570    464.780    464.690    472.490    468.600    469.260    463.070    458.540    449.520    440.740    431.750    423.210    417.500    415.560    411.350    433.660    453.850    466.100    458.550    444.330    435.760    430.330    426.230    423.690    423.280    421.350    418.250    409.020    400.090    396.870    392.950    411.600    422.820    422.730    421.780    419.150    413.710    410.030    400.440    389.920    406.380    444.720    447.890    441.910    434.190    428.960    423.500    419.020    417.430    417.290    419.710    420.420    419.690    417.510    415.110    412.580    410.290    406.440    404.520    402.260    400.160    396.200    392.340    393.680    395.260    388.280    388.820    390.990    391.780    392.600    392.830    393.120    392.010    389.510    386.740    382.310    375.940    367.020    362.250    375.480    404.690    405.400    401.390    396.970    393.750    390.810    389.310    391.120    398.580    400.780    404.040    406.680    406.580    406.580    405.560    404.090    400.990    393.970    385.290    375.490    365.400    349.670    324.180    324.180    333.130    352.770    364.610    378.040    382.870    383.480    383.520    385.300    388.180    393.010    388.400    387.670    374.450    360.080    383.380    379.330    378.160    379.470    379.470    379.470    382.830    388.970    388.160    390.550    390.380    390.280    390.300    390.370    390.350    389.430    387.640    384.640    382.260    381.780    378.880    381.490    382.960    383.180    383.200    380.950    378.110    372.800    366.710    359.180    343.790    355.290    366.540    349.280    367.620    396.750    392.170    389.200    387.840    388.470    392.050    395.310  -9999.000  -9999.000  -9999.000  -9999.000  -9999.000  -9999.000  -9999.000  -9999.000  -9999.000  -9999.000  -9999.000  -9999.000  -9999.000  -9999.000  -9999.000  -9999.000  -9999.000  -9999.000  -9999.000  -9999.000  -9999.000  -9999.000  -9999.000  -9999.000  -9999.000  -9999.000  -9999.000  -9999.000  -9999.000  -9999.000  -9999.000  -9999.000  -9999.000  -9999.000  -9999.000  -9999.000  -9999.000  -9999.000  -9999.000  -9999.000  -9999.000  -9999.000  -9999.000  -9999.000  -9999.000  -9999.000  -9999.000  -9999.000  -9999.000  -9999.000  -9999.000  -9999.000  -9999.000  -9999.000  -9999.000
-9999.000  -9999.000  -9999.000  -9999.000  -9999.000  -9999.000  -9999.000  -9999.000  -9999.000  -9999.000  -9999.000  -9999.000  -9999.000  -9999.000  -9999.000  -9999.000  -9999.000  -9999.000  -9999.000  -9999.000  -9999.000    533.970    527.870    519.060    510.280    500.590    495.860    495.180    489.930    488.030    486.660    487.340    490.410    491.030    483.920    482.830    477.640    469.410    463.480    463.480    462.120    460.840    460.290    458.840    457.080    454.770    453.220    453.220    466.650    462.850    458.890    450.290    456.480    449.280    453.260    463.880    458.450    455.890    440.980    447.340    438.490    437.820    439.430    431.950    424.710    424.330    421.460    420.420    421.470    428.110    439.330    437.600    451.720    467.680    470.660    446.440    437.120    431.900    430.160    428.820    428.370    426.160    419.860    417.210    412.430    405.500    393.390    392.950    412.860    418.740    415.230    411.690    409.070    408.670    406.520    396.100    389.920    434.290    434.480    429.230    422.450    419.740    420.480    417.070    413.820    418.880    424.100    427.410    427.860    424.970    422.740    420.990    417.980    413.960    410.880    408.770    405.440    399.770    398.320    400.900    402.840    396.000    396.950    398.000    398.820    398.420    397.110    396.230    395.150    392.260    389.580    383.690    373.360    365.490    359.820    384.600    402.800    401.580    396.900    391.720    387.090    385.990    383.680    393.230    400.610    403.390    406.880    408.130    408.680    408.790    408.080    403.510    397.950    388.520    376.430    362.250    346.750    329.820    324.180    336.740    356.920    361.360    370.540    374.390    381.710    391.680    394.490    394.040    398.960    403.780    394.740    395.410    383.010    364.790    369.720    372.790    377.010    380.520    385.010    382.740    390.700    404.290    396.170    390.920    390.260    390.220    390.260    391.080    391.860    390.730    388.750    387.020    385.740    386.080    383.640    384.750    384.600    383.100    380.850    379.410    377.340    374.550    369.780    357.050    344.330    371.680    370.810    367.640    358.380    379.570    378.450    379.050    379.930    390.500    395.280  -9999.000  -9999.000  -9999.000  -9999.000  -9999.000  -9999.000  -9999.000  -9999.000  -9999.000  -9999.000  -9999.000  -9999.000  -9999.000  -9999.000  -9999.000  -9999.000  -9999.000  -9999.000  -9999.000  -9999.000  -9999.000  -9999.000  -9999.000  -9999.000  -9999.000  -9999.000  -9999.000  -9999.000  -9999.000  -9999.000  -9999.000  -9999.000  -9999.000  -9999.000  -9999.000  -9999.000  -9999.000  -9999.000  -9999.000  -9999.000  -9999.000  -9999.000  -9999.000  -9999.000  -9999.000  -9999.000  -9999.000  -9999.000  -9999.000  -9999.000  -9999.000  -9999.000  -9999.000  -9999.000  -9999.000  -9999.000
-9999.000  -9999.000  -9999.000  -9999.000  -9999.000  -9999.000  -9999.000  -9999.000  -9999.000  -9999.000  -9999.000  -9999.000  -9999.000  -9999.000  -9999.000  -9999.000  -9999.000  -9999.000  -9999.000  -9999.000    541.630    532.430    525.380    523.130    515.690    506.760    500.490    496.120    489.590    487.620    486.660    500.380    500.740    496.370    492.910    486.880    477.910    464.930    476.830    479.030    476.680    466.210    469.660    468.510    466.340    464.020    463.330    460.340    453.220    452.540    450.700    446.980    437.130    437.130    437.130    437.130    437.130    437.130    437.130    434.730    434.730    433.230    426.090    421.850    421.850    421.850    420.500    430.150    454.820    469.030    473.230    466.930    448.350    456.110    473.760    466.050    445.620    440.820    433.710    433.120    432.080    429.670    426.640    421.780    416.090    409.700    403.980    392.950    392.950    391.790    393.010    394.520    399.170    403.410    402.130    391.410    389.920    419.200    420.000    414.930    411.310    411.260    411.080    410.960    419.950    424.810    432.530    438.740    440.580    437.370    433.110    429.280    425.710    422.320    419.130    413.910    409.260    406.950    408.480    409.620    411.100    403.690    403.940    403.780    402.680    400.860    398.360    396.250    395.190    391.930    389.580    384.140    373.360    366.560    359.000    396.370    400.340    397.420    392.590    389.640    385.620    382.210    383.740    392.250    399.320    406.550    407.350    407.540    408.370    408.140    402.860    397.060    391.780    383.730    372.660    375.140    366.760    329.360    325.560    357.340    379.060    383.300    386.940    388.810    391.600    395.510    398.830    405.030    413.640    409.950    403.980    402.450    396.310    387.680    382.340    378.730    389.990    390.900    387.280    386.740    391.300    394.190    388.190    389.550    390.020    390.060    390.140    390.880    391.730    391.670    391.020    390.410    388.390    386.450    386.450    385.760    384.990    381.740    377.360    377.290    375.900    371.030    362.930    346.740    371.860    362.330    376.050    380.220    381.020    374.990    380.820    386.450    388.340    392.970    395.410  -9999.000  -9999.000  -9999.000  -9999.000  -9999.000  -9999.000  -9999.000  -9999.000  -9999.000  -9999.000  -9999.000  -9999.000  -9999.000  -9999.000  -9999.000  -9999.000  -9999.000  -9999.000  -9999.000  -9999.000  -9999.000  -9999.000  -9999.000  -9999.000  -9999.000  -9999.000  -9999.000  -9999.000  -9999.000  -9999.000  -9999.000  -9999.000  -9999.000  -9999.000  -9999.000  -9999.000  -9999.000  -9999.000  -9999.000  -9999.000  -9999.000  -9999.000  -9999.000  -9999.000  -9999.000  -9999.000  -9999.000  -9999.000  -9999.000  -9999.000  -9999.000  -9999.000  -9999.000  -9999.000  -9999.000  -9999.000
-9999.000  -9999.000  -9999.000  -9999.000  -9999.000  -9999.000  -9999.000  -9999.000  -9999.000  -9999.000  -9999.000  -9999.000  -9999.000  -9999.000  -9999.000  -9999.000  -9999.000  -9999.000    569.730    553.310    538.570    525.790    520.160    521.160    512.620    503.730    498.240    495.830    494.500    496.470    490.220    498.600    502.000    499.340    494.240    485.000    470.700    474.100    480.370    484.590    481.880    477.340    480.780    481.170    482.680    480.240    473.860    466.700    458.850    457.040    453.680    447.990    445.340    450.580    452.060    451.620    455.620    455.610    441.850    442.800    452.340    447.740    447.300    441.720    421.850    436.160    442.980    434.140    458.890    484.500    484.650    482.160    463.120    478.340    480.350    475.680    464.750    455.140    444.010    437.040    433.600    431.410    426.880    417.180    407.990    403.680    403.680    408.690    408.020    392.680    390.860    390.270    391.050    394.480    398.770    389.920    389.920    424.230    410.580    400.860    399.880    403.790    404.420    411.060    419.490    430.200    443.030    448.950    450.230    445.700    439.950    435.940    432.430    428.370    423.870    417.520    414.920    415.470    417.000    417.460    417.100    410.150    408.430    405.920    401.740    398.710    395.070    393.470    390.900    387.360    378.780    370.940    366.380    362.080    357.950    371.680    389.840    392.170    391.040    388.480    385.810    380.710    378.880    387.870    397.310    405.820    404.880    403.430    400.540    397.960    391.650    387.200    388.150    383.880    380.240    372.750    361.140    325.640    328.740    335.810    355.660    378.640    396.420    398.630    397.670    393.480    389.270    404.410    409.060    408.980    407.560    408.560    402.740    399.500    395.150    384.130    397.600    394.710    388.370    392.010    388.190    388.190    388.190    389.990    390.120    390.020    390.120    391.920    393.580    393.180    393.420    391.350    387.100    382.620    384.220    382.540    382.560    377.760    374.340    369.080    370.050    365.490    350.260    367.400    378.860    375.280    379.990    390.840    391.940    388.730    395.620    397.510    394.860  -9999.000  -9999.000  -9999.000  -9999.000  -9999.000  -9999.000  -9999.000  -9999.000  -9999.000  -9999.000  -9999.000  -9999.000  -9999.000  -9999.000  -9999.000  -9999.000  -9999.000  -9999.000  -9999.000  -9999.000  -9999.000  -9999.000  -9999.000  -9999.000  -9999.000  -9999.000  -9999.000  -9999.000  -9999.000  -9999.000  -9999.000  -9999.000  -9999.000  -9999.000  -9999.000  -9999.000  -9999.000  -9999.000  -9999.000  -9999.000  -9999.000  -9999.000  -9999.000  -9999.000  -9999.000  -9999.000  -9999.000  -9999.000  -9999.000  -9999.000  -9999.000  -9999.000  -9999.000  -9999.000  -9999.000  -9999.000  -9999.000  -9999.000
-9999.000  -9999.000  -9999.000  -9999.000  -9999.000  -9999.000  -9999.000  -9999.000  -9999.000  -9999.000  -9999.000  -9999.000  -9999.000  -9999.000  -9999.000  -9999.000  -9999.000  -9999.000    568.740    550.100    537.280    532.560    528.320    520.160    517.090    513.770    510.020    506.960    503.010    498.850    490.220    498.640    502.740    498.380    491.520    482.080    473.130    486.370    481.660    489.220    491.140    489.950    492.320    492.180    488.830    481.810    471.260    462.250    461.610    455.840    449.280    458.120    467.600    469.370    468.580    465.870    459.170    444.190    450.150    463.540    473.170    473.630    476.840    440.880    422.930    468.760    477.630    464.580    454.240    465.030    473.070    482.170    482.630    486.010    479.770    469.410    460.430    451.430    442.460    434.110    427.350    421.810    418.580    419.460    419.510    417.640    416.920    417.060    414.190    408.920    399.750    392.610    389.580    389.580    389.580    390.240    411.700    409.490    393.110    393.110    393.110    397.000    408.250    418.060    427.300    434.000    443.500    449.260    455.080    448.700    443.520    440.250    436.500    431.920    427.690    424.040    421.820    421.960    423.190    423.990    421.140    414.670    410.220    404.800    397.900    392.920    389.790    385.150    382.900    382.900    387.610    385.480    382.390    373.960    361.270    356.420    367.000    382.280    385.650    383.730    379.490    375.000    376.470    388.600    396.020    401.240    401.430    399.050    391.160    384.280    378.260    372.850    382.200    382.930    381.230    364.040    346.270    325.840    346.910    364.640    350.210    360.460    370.610    379.460    379.460    387.650    397.370    395.440    403.510    403.850    406.900    406.960    405.170    401.010    396.450    394.940    396.940    397.160    401.310    397.940    395.950    398.000    394.560    394.050    392.530    390.440    390.880    395.590    400.020    398.800    394.910    388.950    382.980    378.120    378.450    375.780    374.450    375.000    377.600    369.220    359.750    355.390    356.440    377.610    387.830    386.460    389.740    393.340    397.910    399.270    400.210  -9999.000  -9999.000  -9999.000  -9999.000  -9999.000  -9999.000  -9999.000  -9999.000  -9999.000  -9999.000  -9999.000  -9999.000  -9999.000  -9999.000  -9999.000  -9999.000  -9999.000  -9999.000  -9999.000  -9999.000  -9999.000  -9999.000  -9999.000  -9999.000  -9999.000  -9999.000  -9999.000  -9999.000  -9999.000  -9999.000  -9999.000  -9999.000  -9999.000  -9999.000  -9999.000  -9999.000  -9999.000  -9999.000  -9999.000  -9999.000  -9999.000  -9999.000  -9999.000  -9999.000  -9999.000  -9999.000  -9999.000  -9999.000  -9999.000  -9999.000  -9999.000  -9999.000  -9999.000  -9999.000  -9999.000  -9999.000  -9999.000  -9999.000  -9999.000  -9999.000
-9999.000  -9999.000  -9999.000  -9999.000  -9999.000  -9999.000  -9999.000  -9999.000  -9999.000  -9999.000  -9999.000  -9999.000  -9999.000  -9999.000  -9999.000  -9999.000  -9999.000  -9999.000    568.930    553.730    536.820    529.980    523.780    524.420    520.510    517.470    515.160    510.280    503.050    494.740    490.220    498.600    502.550    498.250    493.490    484.620    478.450    491.280    489.710    492.550    496.600    497.340    494.660    491.020    484.250    474.100    468.730    463.560    455.840    456.940    464.320    471.800    476.730    477.660    470.240    458.540    448.930    460.790    474.220    483.370    485.540    485.180    480.610    440.590    422.930    469.470    486.610    478.440    472.890    478.820    480.050    486.030    492.880    494.550    484.580    472.550    459.310    451.190    445.230    439.700    435.080    432.990    430.080    429.020    428.080    425.350    422.960    423.150    423.340    415.070    405.650    394.950    389.580    391.940    390.610    384.650    396.780    383.590    399.410    403.980    401.220    400.870    405.300    413.260    420.910    429.380    437.170    442.270    445.730    445.590    443.150    440.720    437.740    434.050    431.260    429.230    427.410    425.990    424.340    422.940    418.850    416.090    410.180    401.590    393.850    387.550    385.150    387.030    390.340    391.320    391.530    390.330    385.230    379.660    372.170    359.180    354.830    364.680    375.210    370.520    370.550    367.490    382.170    389.510    393.690    398.760    400.210    392.950    383.800    374.540    364.770    354.220    343.760    364.940    351.000    351.300    336.670    331.540    353.730    372.460    386.070    378.280    387.020    385.500    394.710    403.580    404.090    400.930    400.940    402.620    405.670    406.520    405.570    403.340    401.190    399.060    402.690    402.890    403.650    401.940    401.330    400.860    400.120    398.300    394.950    393.260    394.700    401.330    403.350    400.750    394.220    385.760    379.220    378.870    373.380    369.580    369.100    369.100    366.540    362.220    362.250    355.990    380.900    365.400    375.460    389.170    398.850    399.320    400.390    400.990  -9999.000  -9999.000  -9999.000  -9999.000  -9999.000  -9999.000  -9999.000  -9999.000  -9999.000  -9999.000  -9999.000  -9999.000  -9999.000  -9999.000  -9999.000  -9999.000  -9999.000  -9999.000  -9999.000  -9999.000  -9999.000  -9999.000  -9999.000  -9999.000  -9999.000  -9999.000  -9999.000  -9999.000  -9999.000  -9999.000  -9999.000  -9999.000  -9999.000  -9999.000  -9999.000  -9999.000  -9999.000  -9999.000  -9999.000  -9999.000  -9999.000  -9999.000  -9999.000  -9999.000  -9999.000  -9999.000  -9999.000  -9999.000  -9999.000  -9999.000  -9999.000  -9999.000  -9999.000  -9999.000  -9999.000  -9999.000  -9999.000  -9999.000  -9999.000  -9999.000  -9999.000
-9999.000  -9999.000  -9999.000  -9999.000  -9999.000  -9999.000  -9999.000  -9999.000  -9999.000  -9999.000  -9999.000  -9999.000  -9999.000  -9999.000  -9999.000  -9999.000  -9999.000    571.950    566.460    551.100    537.350    531.200    525.130    519.550    517.400    514.550    508.110    503.730    495.330    497.970    503.910    504.510    503.710    501.450    500.050    482.020    490.910    496.720    496.120    497.980    499.100    498.420    494.450    489.800    485.270    480.740    474.440    466.210    456.040    465.960    472.490    474.930    474.410    469.260    459.230    454.300    467.940    475.260    485.620    489.950    489.100    483.930    473.520    447.400    422.930    429.920    459.280    478.700    480.370    489.570    494.360    496.420    491.910    495.540    491.520    481.410    471.390    462.840    455.720    448.820    444.430    441.660    437.540    431.690    430.540    422.560    418.340    416.910    409.600    405.650    407.800    406.950    403.700    401.620    398.260    392.570    383.590    384.190    392.720    400.860    404.730    406.780    409.790    412.980    419.240    424.670    429.890    434.160    439.440    438.300    438.620    437.220    436.440    434.670    432.570    430.660    427.380    423.780    420.520    417.770    412.430    413.490    405.930    397.120    390.820    392.650    397.030    398.410    398.430    398.640    397.390    394.030    388.590    380.720    374.860    370.720    357.770    351.460    357.020    357.850    364.830    375.900    385.960    392.010    395.820    397.560    398.690    392.670    385.040    378.770    376.270    362.620    339.510    337.460    334.760    334.550    332.120    340.860    368.500    359.250    391.730    406.470    409.090    409.120    408.780    405.780    405.890    405.100    405.150    407.720    405.730    407.470    409.150    408.070    404.660    405.500    407.080    407.340    406.690    405.880    404.600    403.220    401.450    399.160    395.960    396.080    398.490    402.280    403.470    399.360    391.790    389.170    390.040    383.880    376.760    377.890    379.320    376.180    376.540    373.720    366.460    364.970    384.380    384.030    378.690    380.390    390.060    393.830    402.620    407.040  -9999.000  -9999.000  -9999.000  -9999.000  -9999.000  -9999.000  -9999.000  -9999.000  -9999.000  -9999.000  -9999.000  -9999.000  -9999.000  -9999.000  -9999.000  -9999.000  -9999.000  -9999.000  -9999.000  -9999.000  -9999.000  -9999.000  -9999.000  -9999.000  -9999.000  -9999.000  -9999.000  -9999.000  -9999.000  -9999.000  -9999.000  -9999.000  -9999.000  -9999.000  -9999.000  -9999.000  -9999.000  -9999.000  -9999.000  -9999.000  -9999.000  -9999.000  -9999.000  -9999.000  -9999.000  -9999.000  -9999.000  -9999.000  -9999.000  -9999.000  -9999.000  -9999.000  -9999.000  -9999.000  -9999.000  -9999.000  -9999.000  -9999.000  -9999.000  -9999.000  -9999.000
-9999.000  -9999.000  -9999.000  -9999.000  -9999.000  -9999.000  -9999.000  -9999.000  -9999.000  -9999.000  -9999.000  -9999.000  -9999.000  -9999.000  -9999.000  -9999.000  -9999.000    572.840    566.390    554.430    548.680    535.920    524.820    517.250    515.030    511.720    507.090    504.570    506.420    512.520    511.390    508.500    505.380    501.140    495.440    495.250    507.780    507.820    504.930    503.060    500.060    496.690    494.760    486.520    482.000    479.100    469.570    463.580    459.370    467.230    472.600    472.750    467.810    460.720    466.600    470.870    480.780    488.880    493.720    493.620    490.350    485.700    472.480    463.160    448.050    422.930    432.970    448.750    466.850    482.150    493.630    495.100    501.350    492.690    489.020    481.540    475.090    469.000    460.490    454.120    443.550    437.720    435.790    434.970    435.560    433.650    428.630    424.230    425.710    421.350    416.060    410.400    406.520    399.510    392.570    393.000    383.440    379.950    382.320    384.020    412.470    413.320    415.790    416.930    419.210    422.440    424.480    425.090    423.620    425.610    428.100    432.780    433.880    432.580    431.130    428.520    425.890    423.510    420.990    417.260    413.680    405.580    400.850    401.070    397.850    403.530    405.800    406.120    406.040    405.210    402.270    397.770    392.900    386.760    378.740    369.650    363.820    355.900    351.350    371.380    384.690    390.060    393.710    395.500    396.390    397.310    396.840    394.280    386.600    379.390    361.870    345.580    338.360    334.760    344.490    354.380    368.000    394.470    401.760    385.470    384.800    402.920    405.820    407.670    407.610    407.250    407.400    407.360    409.640    407.720    408.430    410.330    414.670    414.860    411.560    412.720    413.630    412.720    411.160    409.210    406.720    404.510    401.180    398.630    397.360    397.530    399.220    401.830    403.900    402.260    401.690    400.260    394.320    394.280    389.390    388.170    381.910    382.670    383.330    381.130    371.540    364.970    391.170    389.280    387.660    396.370    394.060    404.620    407.140  -9999.000  -9999.000  -9999.000  -9999.000  -9999.000  -9999.000  -9999.000  -9999.000  -9999.000  -9999.000  -9999.000  -9999.000  -9999.000  -9999.000  -9999.000  -9999.000  -9999.000  -9999.000  -9999.000  -9999.000  -9999.000  -9999.000  -9999.000  -9999.000  -9999.000  -9999.000  -9999.000  -9999.000  -9999.000  -9999.000  -9999.000  -9999.000  -9999.000  -9999.000  -9999.000  -9999.000  -9999.000  -9999.000  -9999.000  -9999.000  -9999.000  -9999.000  -9999.000  -9999.000  -9999.000  -9999.000  -9999.000  -9999.000  -9999.000  -9999.000  -9999.000  -9999.000  -9999.000  -9999.000  -9999.000  -9999.000  -9999.000  -9999.000  -9999.000  -9999.000  -9999.000  -9999.000
-9999.000  -9999.000  -9999.000  -9999.000  -9999.000  -9999.000  -9999.000  -9999.000  -9999.000  -9999.000  -9999.000  -9999.000  -9999.000  -9999.000  -9999.000  -9999.000  -9999.000    577.500    575.100    570.660    553.090    534.080    520.180    515.230    508.720    506.000    504.570    504.570    511.530    511.060    508.880    505.960    501.710    497.670    495.250    495.250    505.730    512.420    512.070    508.070    501.320    493.440    485.870    481.530    476.490    475.130    471.050    471.000    470.210    472.360    471.440    468.290    464.640    472.240    478.920    482.780    483.440    496.350    497.870    494.200    491.330    484.680    476.750    466.310    448.090    424.150    455.800    473.710    480.010    484.520    488.520    488.800    490.300    487.520    484.310    479.020    474.160    465.540    456.120    457.380    454.250    450.210    442.570    441.520    441.090    437.850    433.890    430.290    427.760    422.000    413.300    405.030    399.810    399.300    404.430    406.460    394.370    389.600    379.950    381.460    398.520    413.420    416.310    416.660    416.480    417.060    419.980    416.010    412.770    414.270    424.480    428.530    429.500    429.230    426.750    423.780    423.430    423.510    422.870    420.340    418.620    411.420    410.250    406.990    408.470    411.760    415.010    416.050    414.980    410.800    405.030    399.430    393.200    387.310    379.350    374.160    366.420    357.630    354.030    351.350    382.010    396.670    399.020    395.780    396.600    397.720    396.760    390.630    388.190    384.690    372.580    346.450    338.360    334.760    362.280    382.240    390.040    400.780    404.450    402.370    399.040    400.790    403.620    405.500    404.990    405.030    406.740    409.820    412.840    413.190    413.990    414.850    417.490    418.670    419.940    421.140    419.260    416.970    414.250    410.880    407.630    404.490    402.300    399.880    399.760    400.210    400.180    403.910    405.920    407.080    406.550    403.570    394.930    398.490    394.130    390.350    388.500    389.340    390.730    385.680    373.450    366.730    392.400    395.260    398.000    403.900    405.640    406.240  -9999.000  -9999.000  -9999.000  -9999.000  -9999.000  -9999.000  -9999.000  -9999.000  -9999.000  -9999.000  -9999.000  -9999.000  -9999.000  -9999.000  -9999.000  -9999.000  -9999.000  -9999.000  -9999.000  -9999.000  -9999.000  -9999.000  -9999.000  -9999.000  -9999.000  -9999.000  -9999.000  -9999.000  -9999.000  -9999.000  -9999.000  -9999.000  -9999.000  -9999.000  -9999.000  -9999.000  -9999.000  -9999.000  -9999.000  -9999.000  -9999.000  -9999.000  -9999.000  -9999.000  -9999.000  -9999.000  -9999.000  -9999.000  -9999.000  -9999.000  -9999.000  -9999.000  -9999.000  -9999.000  -9999.000  -9999.000  -9999.000  -9999.000  -9999.000  -9999.000  -9999.000  -9999.000  -9999.000
-9999.000  -9999.000  -9999.000  -9999.000  -9999.000  -9999.000  -9999.000  -9999.000  -9999.000  -9999.000  -9999.000  -9999.000  -9999.000  -9999.000  -9999.000  -9999.000  -9999.000    581.610    579.830    569.610    549.240    531.090    523.500    513.640    510.510    506.960    510.510    511.190    509.110    510.210    505.530    499.710    496.980    496.980    498.340    503.400    504.890    510.270    512.660    509.180    501.290    495.230    485.760    487.460    486.220    481.710    480.640    478.520    472.610    475.190    470.870    469.270    475.260    478.860    485.730    495.370    494.450    494.850    495.720    493.860    489.950    481.420    469.680    456.300    447.680    429.900    430.230    454.940    477.000    478.790    485.370    489.430    488.030    485.720    481.510    475.130    467.820    464.790    467.500    466.290    462.850    457.220    453.800    451.380    446.000    440.240    431.950    425.550    419.260    416.960    413.460    408.980    407.600    406.640    409.710    409.930    403.340    394.910    385.500    379.440    381.290    405.160    414.300    413.320    406.040    414.700    411.470    402.820    399.990    411.200    418.550    422.290    424.800    425.300    423.270    419.840    418.960    419.020    419.320    420.150    420.540    416.600    415.220    412.840    417.870    421.320    424.250    422.760    417.800    410.440    400.610    393.030    385.380    380.700    373.960    366.790    370.330    375.470    368.000    350.060    352.500    380.970    385.070    393.450    394.950    398.260    398.480    398.160    395.280    386.430    366.500    349.510    340.650    334.760    361.840    388.020    389.260    392.980    397.510    405.150    406.280    404.240    401.100    398.580    397.690    399.140    407.520    410.610    414.170    415.730    418.420    420.520    421.880    422.220    422.320    422.850    421.850    420.050    415.450    412.560    411.370    409.640    406.310    404.880    404.880    405.380    404.650    407.330    409.420    409.600    408.500    404.510    397.170    401.720    397.110    395.940    396.280    396.520    395.880    388.550    378.760    370.240    399.870    403.880    407.400    411.620    411.770  -9999.000  -9999.000  -9999.000  -9999.000  -9999.000  -9999.000  -9999.000  -9999.000  -9999.000  -9999.000  -9999.000  -9999.000  -9999.000  -9999.000  -9999.000  -9999.000  -9999.000  -9999.000  -9999.000  -9999.000  -9999.000  -9999.000  -9999.000  -9999.000  -9999.000  -9999.000  -9999.000  -9999.000  -9999.000  -9999.000  -9999.000  -9999.000  -9999.000  -9999.000  -9999.000  -9999.000  -9999.000  -9999.000  -9999.000  -9999.000  -9999.000  -9999.000  -9999.000  -9999.000  -9999.000  -9999.000  -9999.000  -9999.000  -9999.000  -9999.000  -9999.000  -9999.000  -9999.000  -9999.000  -9999.000  -9999.000  -9999.000  -9999.000  -9999.000  -9999.000  -9999.000  -9999.000  -9999.000  -9999.000
-9999.000  -9999.000  -9999.000  -9999.000  -9999.000  -9999.000  -9999.000  -9999.000  -9999.000  -9999.000  -9999.000  -9999.000  -9999.000  -9999.000  -9999.000  -9999.000  -9999.000    582.440    576.960    566.640    550.570    541.070    549.060    529.700    522.230    513.990    514.270    515.740    513.090    512.500    505.970    506.280    499.600    505.970    502.300    510.280    511.400    512.320    512.750    510.200    505.580    500.590    499.030    499.780    496.620    492.100    489.880    486.740    479.140    478.110    475.360    475.030    481.770    488.520    497.710    500.370    499.810    495.130    487.220    487.430    481.150    474.500    467.230    457.510    446.630    439.560    429.900    429.900    443.030    461.330    480.100    489.420    489.140    487.610    482.310    476.290    474.020    475.140    473.810    471.960    469.030    464.970    461.900    457.630    448.560    440.330    435.900    433.180    431.740    426.130    421.940    417.490    414.910    413.080    411.850    410.640    406.270    401.410    394.260    383.600    379.440    380.920    396.480    397.480    401.040    394.320    391.130    399.990    405.530    410.970    415.950    421.600    421.960    421.460    419.430    417.270    414.700    415.300    416.540    417.930    420.910    420.040    420.910    420.540    424.450    426.710    426.840    424.280    418.340    412.260    402.640    395.800    385.280    374.620    379.990    380.460    384.350    384.220    380.620    369.890    347.640    349.750    377.670    374.160    392.820    397.420    401.340    402.840    398.260    391.640    380.750    361.120    346.200    339.850    347.850    361.860    364.070    369.010    382.460    398.520    402.200    393.750    390.800    389.690    387.920    401.520    406.510    411.660    417.650    417.640    422.330    425.730    424.940    423.340    422.500    423.000    422.830    420.400    419.160    418.210    418.910    417.170    414.010    413.440    411.730    411.400    408.950    414.280    412.800    410.860    408.280    402.120    399.920    404.240    400.630    400.650    401.120    400.150    397.400    390.070    380.610    372.360    396.250    403.850    412.390    415.410  -9999.000  -9999.000  -9999.000  -9999.000  -9999.000  -9999.000  -9999.000  -9999.000  -9999.000  -9999.000  -9999.000  -9999.000  -9999.000  -9999.000  -9999.000  -9999.000  -9999.000  -9999.000  -9999.000  -9999.000  -9999.000  -9999.000  -9999.000  -9999.000  -9999.000  -9999.000  -9999.000  -9999.000  -9999.000  -9999.000  -9999.000  -9999.000  -9999.000  -9999.000  -9999.000  -9999.000  -9999.000  -9999.000  -9999.000  -9999.000  -9999.000  -9999.000  -9999.000  -9999.000  -9999.000  -9999.000  -9999.000  -9999.000  -9999.000  -9999.000  -9999.000  -9999.000  -9999.000  -9999.000  -9999.000  -9999.000  -9999.000  -9999.000  -9999.000  -9999.000  -9999.000  -9999.000  -9999.000  -9999.000  -9999.000
-9999.000  -9999.000  -9999.000  -9999.000  -9999.000  -9999.000  -9999.000  -9999.000  -9999.000  -9999.000  -9999.000  -9999.000  -9999.000  -9999.000  -9999.000  -9999.000  -9999.000    588.590    582.710    576.170    566.740    562.930    562.850    546.070    533.840    524.770    522.180    520.510    517.580    513.930    513.620    512.700    506.260    510.250    508.370    510.440    514.910    516.210    515.790    513.830    510.450    504.790    506.850    506.860    503.790    503.280    500.170    497.150    486.750    484.010    481.230    480.120    486.840    495.610    499.250    500.170    498.200    493.050    487.330    478.820    469.190    459.480    452.550    444.960    444.380    445.530    431.690    436.500    472.410    476.690    484.490    489.590    490.220    489.420    486.420    480.520    480.460    479.710    479.020    476.940    474.610    470.990    467.090    462.990    458.640    453.660    449.610    444.650    441.110    435.850    428.920    423.860    420.080    415.810    411.930    408.640    408.150    406.150    401.120    393.730    384.200    379.440    380.420    380.780    412.960    385.150    409.040    415.010    416.980    421.090    420.520    420.380    419.390    418.330    415.720    411.740    411.160    412.780    413.160    416.590    420.420    423.780    426.360    427.560    428.870    429.540    427.880    423.500    416.560    409.170    397.320    385.650    387.510    392.770    392.810    391.180    390.760    388.560    385.570    379.100    362.320    347.060    357.250    389.930    392.500    398.900    403.660    402.670    398.850    396.580    393.190    381.350    364.110    341.780    339.850    344.700    345.310    348.290    364.790    376.430    383.560    376.190    374.680    375.200    387.210    392.920    409.980    418.940    416.690    420.040    421.190    422.180    420.310    419.720    422.550    424.150    424.140    424.140    424.650    426.200    426.080    423.340    421.270    419.400    417.050    414.940    412.680    415.950    414.530    410.700    406.020    404.570    405.440    405.780    404.860    402.890    401.170    398.550    394.120    386.130    380.220    383.480    391.670    398.360    414.070  -9999.000  -9999.000  -9999.000  -9999.000  -9999.000  -9999.000  -9999.000  -9999.000  -9999.000  -9999.000  -9999.000  -9999.000  -9999.000  -9999.000  -9999.000  -9999.000  -9999.000  -9999.000  -9999.000  -9999.000  -9999.000  -9999.000  -9999.000  -9999.000  -9999.000  -9999.000  -9999.000  -9999.000  -9999.000  -9999.000  -9999.000  -9999.000  -9999.000  -9999.000  -9999.000  -9999.000  -9999.000  -9999.000  -9999.000  -9999.000  -9999.000  -9999.000  -9999.000  -9999.000  -9999.000  -9999.000  -9999.000  -9999.000  -9999.000  -9999.000  -9999.000  -9999.000  -9999.000  -9999.000  -9999.000  -9999.000  -9999.000  -9999.000  -9999.000  -9999.000  -9999.000  -9999.000  -9999.000  -9999.000  -9999.000  -9999.000
-9999.000  -9999.000  -9999.000  -9999.000  -9999.000  -9999.000  -9999.000  -9999.000  -9999.000  -9999.000  -9999.000  -9999.000  -9999.000  -9999.000  -9999.000  -9999.000  -9999.000    591.700    583.490    571.070    568.330    567.110    562.950    543.500    540.810    539.580    528.290    523.490    517.440    517.420    513.440    508.910    516.470    516.950    514.360    516.300    517.920    517.740    515.260    513.250    512.450    512.080    509.490    507.350    506.510    504.270    501.830    499.230    491.280    485.380    485.090    491.170    496.320    501.010    500.180    497.720    497.720    492.590    485.190    473.620    462.100    462.580    463.260    460.400    455.780    448.400    436.320    431.760    465.230    481.440    485.780    488.840    491.140    490.370    486.460    483.850    482.940    483.180    483.330    481.340    478.660    474.690    469.780    465.880    462.250    458.680    455.270    451.820    447.010    441.300    433.790    427.610    421.210    415.310    410.830    406.400    406.590    402.820    396.870    386.460    379.440    380.640    379.440    381.340    382.660    399.280    420.440    420.240    426.510    423.940    418.340    414.760    412.170    410.500    408.730    406.800    410.120    409.340    414.740    419.590    425.310    424.530    429.140    430.140    431.630    431.190    425.180    415.450    408.560    404.310    402.180    399.110    399.850    398.940    396.980    393.490    390.020    387.820    385.740    383.820    376.290    357.480    347.060    357.700    396.080    404.330    403.550    398.000    395.880    391.520    392.910    383.110    368.890    340.830    339.850    350.890    358.480    362.760    358.080    358.080    358.080    361.470    372.680    383.370    385.280    385.280    394.800    411.810    404.460    412.610    413.620    414.130    414.420    418.530    423.290    424.920    425.580    426.850    428.230    430.310    430.390    428.000    425.680    422.430    418.570    416.140    417.700    416.710    415.070    411.370    408.100    407.340    407.080    404.770    404.760    403.260    400.230    396.710    393.340    387.780    380.220    390.230    390.370    400.760    410.300  -9999.000  -9999.000  -9999.000  -9999.000  -9999.000  -9999.000  -9999.000  -9999.000  -9999.000  -9999.000  -9999.000  -9999.000  -9999.000  -9999.000  -9999.000  -9999.000  -9999.000  -9999.000  -9999.000  -9999.000  -9999.000  -9999.000  -9999.000  -9999.000  -9999.000  -9999.000  -9999.000  -9999.000  -9999.000  -9999.000  -9999.000  -9999.000  -9999.000  -9999.000  -9999.000  -9999.000  -9999.000  -9999.000  -9999.000  -9999.000  -9999.000  -9999.000  -9999.000  -9999.000  -9999.000  -9999.000  -9999.000  -9999.000  -9999.000  -9999.000  -9999.000  -9999.000  -9999.000  -9999.000  -9999.000  -9999.000  -9999.000  -9999.000  -9999.000  -9999.000  -9999.000  -9999.000  -9999.000  -9999.000  -9999.000  -9999.000
-9999.000  -9999.000  -9999.000  -9999.000  -9999.000  -9999.000  -9999.000  -9999.000  -9999.000  -9999.000  -9999.000  -9999.000  -9999.000  -9999.000  -9999.000  -9999.000  -9999.000  -9999.000    585.130    577.650    570.630    564.170    567.950    558.850    558.040    555.410    548.220    533.310    525.670    521.650    515.880    514.650    518.280    518.430    518.040    516.740    515.130    512.460    512.560    514.410    515.140    513.250    510.040    507.450    503.500    499.970    498.310    497.490    496.220    493.420    492.680    495.380    499.290    501.270    501.380    499.090    492.580    481.330    481.330    478.750    477.870    473.530    466.120    454.980    447.210    441.460    433.380    449.550    481.320    485.850    487.420    482.290    487.570    484.900    482.370    483.070    484.920    484.840    482.060    479.080    473.580    468.320    462.650    458.040    456.020    454.560    452.040    451.090    446.460    437.120    428.010    418.920    411.930    404.950    401.010    391.740    393.900    386.460    386.460    388.000    390.060    388.190    379.440    381.890    386.820    412.340    417.870    418.010    415.030    410.440    405.350    401.300    402.200    399.910    406.200    406.690    406.730    406.730    418.950    421.280    425.670    428.490    430.490    433.290    434.150    429.260    424.960    418.990    417.120    414.780    412.470    409.150    404.980    399.290    393.310    387.030    383.120    382.000    384.430    384.740    381.500    376.200    358.750    347.060    382.110    405.780    397.440    382.460    387.430    374.060    369.740    375.830    351.910    339.850    347.260    363.350    362.850    365.550    375.100    369.100    371.330    371.220    386.130    395.780    399.850    401.670    395.370    394.800    397.310    400.820    407.300    408.650    412.130    419.450    424.310    425.640    427.130    429.540    431.680    433.040    432.410    428.970    425.000    424.790    423.790    423.670    423.580    420.320    416.570    413.220    411.860    410.000    406.990    403.390    403.340    402.400    400.740    398.330    395.680    385.870    392.140    404.460    409.940    410.070    406.500  -9999.000  -9999.000  -9999.000  -9999.000  -9999.000  -9999.000  -9999.000  -9999.000  -9999.000  -9999.000  -9999.000  -9999.000  -9999.000  -9999.000  -9999.000  -9999.000  -9999.000  -9999.000  -9999.000  -9999.000  -9999.000  -9999.000  -9999.000  -9999.000  -9999.000  -9999.000  -9999.000  -9999.000  -9999.000  -9999.000  -9999.000  -9999.000  -9999.000  -9999.000  -9999.000  -9999.000  -9999.000  -9999.000  -9999.000  -9999.000  -9999.000  -9999.000  -9999.000  -9999.000  -9999.000  -9999.000  -9999.000  -9999.000  -9999.000  -9999.000  -9999.000  -9999.000  -9999.000  -9999.000  -9999.000  -9999.000  -9999.000  -9999.000  -9999.000  -9999.000  -9999.000  -9999.000  -9999.000  -9999.000  -9999.000  -9999.000
-9999.000  -9999.000  -9999.000  -9999.000  -9999.000  -9999.000  -9999.000  -9999.000  -9999.000  -9999.000  -9999.000  -9999.000  -9999.000  -9999.000  -9999.000  -9999.000  -9999.000  -9999.000    583.470    580.440    576.040    569.950    560.970    570.980    561.200    561.370    551.920    547.340    533.280    528.640    522.950    522.860    522.380    521.590    520.010    516.890    511.520    506.550    509.740    513.260    514.640    511.550    508.450    504.380    499.470    494.100    492.030    492.500    497.680    498.030    499.770    500.570    501.530    501.720    501.150    498.710    490.300    490.060    490.510    489.300    483.820    475.600    466.070    455.420    445.400    442.670    439.140    433.450    457.360    482.160    483.630    466.430    481.570    477.420    478.260    483.540    485.360    484.310    480.480    475.870    468.480    461.470    454.340    450.590    446.530    443.260    442.350    442.390    436.730    431.990    429.440    420.450    411.520    401.320    394.090    392.870    387.790    393.680    403.210    400.620    398.880    392.580    385.350    379.440    383.460    392.780    407.930    410.010    407.260    399.770    394.180    389.840    391.780    398.400    396.780    398.930    409.210    419.400    421.080    420.660    420.530    427.780    433.230    428.940    425.080    423.070    421.570    421.000    419.060    416.140    411.220    401.790    392.650    388.740    385.250    380.940    373.090    375.110    379.750    380.730    377.830    370.520    347.060    365.860    375.480    376.420    366.330    362.110    342.720    339.850    339.850    339.850    339.850    365.100    373.160    376.100    378.330    381.300    376.710    380.830    386.010    390.810    394.220    401.560    407.380    410.250    404.920    400.140    412.060    407.820    409.730    414.360    422.590    425.610    426.930    428.460    430.920    433.330    434.740    434.640    431.430    430.130    430.130    430.110    430.780    429.860    428.860    424.530    420.040    416.800    414.170    411.340    407.830    403.690    401.290    400.580    399.680    397.760    391.940    385.870    400.230    415.000  -9999.000  -9999.000  -9999.000  -9999.000  -9999.000  -9999.000  -9999.000  -9999.000  -9999.000  -9999.000  -9999.000  -9999.000  -9999.000  -9999.000  -9999.000  -9999.000  -9999.000  -9999.000  -9999.000  -9999.000  -9999.000  -9999.000  -9999.000  -9999.000  -9999.000  -9999.000  -9999.000  -9999.000  -9999.000  -9999.000  -9999.000  -9999.000  -9999.000  -9999.000  -9999.000  -9999.000  -9999.000  -9999.000  -9999.000  -9999.000  -9999.000  -9999.000  -9999.000  -9999.000  -9999.000  -9999.000  -9999.000  -9999.000  -9999.000  -9999.000  -9999.000  -9999.000  -9999.000  -9999.000  -9999.000  -9999.000  -9999.000  -9999.000  -9999.000  -9999.000  -9999.000  -9999.000  -9999.000  -9999.000  -9999.000  -9999.000  -9999.000  -9999.000  -9999.000
